0.4459969814 0.6452807787 0.9220177208
0.9745292255 0.3111346055 0.9877223759
0.0348950671 0.4093568145 0.7027823106
0.2422823065 0.0825849292 0.4882001716
0.3276501047 0.1838153105 0.0520077312
0.8926782234 0.8187128668 0.3238493117
0.1437342151 0.2170716021 0.8688965326
0.9456909305 0.2970134109 0.5649431140
0.2514482749 0.2890491373 0.0705906163
0.7728542778 0.1493208438 0.6694569201
0.7199738651 0.9078406993 0.0242130546
0.8107598217 0.3071140329 0.2019054273
0.8447694730 0.6206965369 0.0831794613
0.6656795007 0.8074248799 0.3221670579
0.0219187933 0.3557961600 0.6308707355
0.3429887725 0.9515939317 0.6628261272
0.6575802990 0.1409250180 0.8920577760
0.9177211962 0.1597387391 0.9870214523
0.7370234910 0.7940522755 0.0482934892
0.7221282062 0.9143305750 0.3788622774
0.8436460047 0.2681512249 0.1688335081
0.6028922638 0.2911184073 0.1564698245
0.6845685001 0.0463784230 0.3498037214
0.7457215093 0.8398471167 0.5427715219
0.1125760372 0.3425842947 0.4652224428
0.8966157221 0.3105635577 0.5869128203
0.4996101838 0.9216503028 0.6471621638
0.6256491057 0.3408755564 0.3466594762
0.7046774922 0.4770722491 0.9950010571
0.5706434064 0.1512975868 0.1248957651
0.8638360458 0.7026216589 0.1919017823
0.3060725778 0.8188841405 0.0763986137
0.9057013578 0.7251306481 0.4550780068
0.4210961762 0.8940657255 0.2555917683
0.9148091363 0.5177606734 0.9382712276
0.2673222729 0.6662532729 0.0811687755
0.1523020799 0.6396796985 0.5017077361
0.3505229077 0.5882305005 0.1177637754
0.6781547274 0.0658105389 0.0051364974
0.3164066476 0.0663896589 0.4529070887
0.3281834100 0.4872792004 0.2461147741
0.5478079227 0.1679937846 0.4994578389
0.1223423060 0.8301554358 0.1178492572
0.7682933935 0.5981080723 0.9215345954
0.4454526963 0.3872244096 0.6379454202
0.4226989566 0.0784037712 0.7057709727
0.8873904050 0.4574115962 0.0795432491
0.9738567921 0.0310926125 0.6162702565
0.0418261940 0.3075061875 0.9824059469
0.0924858140 0.5667631152 0.2069191849
0.9214816871 0.9803426239 0.0620834902
0.1808384048 0.7188063793 0.2680716164
0.5102368477 0.2585402237 0.5957745147
0.6493392150 0.8881870225 0.3991265833
0.8070850063 0.7658438256 0.9423131466
0.4967687350 0.6369315674 0.1314408052
0.1125693764 0.9435365794 0.3105326909
0.0300335043 0.2532891321 0.7957729802
0.9836213077 0.2652612518 0.0358965611
0.0380416605 0.1853796898 0.9718843416
0.6072109389 0.2869365533 0.2977156704
0.0560041192 0.9757960061 0.9513059132
0.3908199932 0.9082730013 0.5394893283
0.0331177472 0.8758615400 0.8004863005
0.8388011186 0.2915446526 0.7827109387
0.4975768987 0.7468105795 0.9527537560
0.6918580594 0.4724203555 0.5861529582
0.5748685021 0.0031827397 0.7675461036
0.7222694909 0.9430115665 0.8456500292
0.6263670666 0.7095162502 0.4474880494
0.4893827769 0.4284039166 0.3044041146
0.1047072885 0.5708396121 0.1893126566
0.7248942043 0.9118103621 0.4548074562
0.6708486369 0.3358973250 0.2110481168
0.0518010168 0.1621320701 0.8699711748
0.3120458546 0.7247321179 0.5935444334
0.6735818906 0.5546037917 0.8266368177
0.0365860702 0.3820875990 0.1311809445
0.6622314562 0.2153465193 0.5826822069
0.0194294565 0.1352024163 0.1738467110
0.9013460413 0.6074321808 0.9414830318
0.0714596569 0.8912576223 0.5925231599
0.0835328147 0.2377981664 0.5593838371
0.5840685846 0.2109878112 0.1222600421
0.4723061691 0.1372689269 0.7173933238
0.0207044287 0.6542348083 0.9451225429
0.9271687801 0.2859051076 0.6206754449
0.0415586562 0.0360814307 0.2626133683
0.1544666150 0.7100682567 0.9444780807
0.6681272889 0.5186625917 0.7578864287
0.4822725574 0.5331318567 0.2119887036
0.8712318708 0.8732664803 0.2229156865
0.7787448732 0.8641591012 0.0271478630
0.7438878425 0.7307959312 0.7450652729
0.9050596414 0.9396832697 0.9170362871
0.6268457268 0.8603884960 0.3880628563
0.0481687703 0.6032486580 0.5919315342
0.4239126019 0.6283365185 0.1868439221
0.0364665585 0.1353653650 0.4947208009
0.2811300388 0.0458197384 0.3960023284
0.3475664803 0.6389126570 0.7733922675
0.1358986990 0.5722649130 0.5035894070
0.5668152181 0.5077957703 0.4936064682
0.0475218341 0.0088639942 0.0875152295
0.5916836367 0.1618714234 0.5738128993
0.9698389483 0.1249165468 0.2662280354
0.9588078214 0.1016496203 0.8544583159
0.3865756811 0.7198658043 0.2832394938
0.3935137250 0.2625663072 0.9750330126
0.6759310391 0.3492561414 0.7221509985
0.2054645480 0.4520018087 0.2613202965
0.2752971792 0.4589175385 0.3060359815
0.1777147906 0.6341761353 0.9227806660
0.1015688012 0.3947857960 0.1001403053
0.7216261875 0.8935366256 0.1833718090
0.0417947711 0.9411680213 0.6021702871
0.0842920390 0.5154031248 0.8963352487
0.1799175547 0.1786793828 0.9248507146
0.4409635135 0.0327090268 0.2967665231
0.6683895876 0.9669204056 0.1411575156
0.0514971943 0.9486260869 0.4899313054
0.0747558990 0.4106032090 0.8534240220
0.8384571175 0.4439425070 0.6925639194
0.7567823289 0.7773709380 0.3856318813
0.2355626108 0.2469495993 0.3992975611
0.3756754620 0.3912668288 0.9402453997
0.4358854704 0.5244181849 0.6505262366
0.7224782417 0.2364983815 0.4485220824
0.2031262447 0.0055068448 0.1501287408
0.0221483802 0.1907620936 0.0404512736
0.0964591392 0.0821324438 0.5360794989
0.7237288812 0.5810323248 0.3097828013
0.2221113165 0.2468192482 0.2188757885
0.6659511130 0.6991323749 0.0491896632
0.8325609764 0.2428060800 0.1966753121
0.5918291180 0.1601527699 0.6980084867
0.3669312951 0.9843501677 0.1571977953
0.3201512836 0.3072720205 0.9423239130
0.8878438249 0.2291974710 0.0001985471
0.6126526222 0.6442120701 0.1718099465
0.1221382960 0.5805931919 0.9192246603
0.8287876260 0.5511596684 0.3491619335
0.5523496094 0.6695126368 0.4308702329
0.0653940341 0.6107287632 0.7824426969
0.1344800730 0.4941800500 0.9127014858
0.5643661169 0.8233257066 0.2305401674
0.6625070115 0.7828578641 0.2780106312
0.2706007634 0.2154603032 0.2504525812
0.9388725582 0.6233445366 0.4422671029
0.7476413461 0.8945443694 0.2336502886
0.0733840238 0.6823441999 0.0798354989
0.5456491796 0.5255948819 0.4742520641
0.7430374905 0.0784905037 0.3834628424
0.1581675579 0.0642054342 0.4192811681
0.1288173086 0.3861067573 0.6405963870
0.8214991258 0.2234335014 0.2416491878
0.9191278399 0.0729064211 0.5079264804
0.8542060294 0.1157566089 0.8266871927
0.7565563134 0.2629930562 0.7788780283
0.6075098925 0.1125893772 0.9423667001
0.4195832568 0.6658435519 0.8336180115
0.7308430672 0.7809346717 0.2206315648
0.3906459972 0.4047978863 0.9504499711
0.3774907756 0.5457237066 0.0447786987
0.9681738962 0.1991594295 0.3406053422
0.7046365232 0.9820526181 0.6649108909
0.1591264266 0.1015880219 0.3952998632
0.9663080281 0.8537845542 0.7965087262
0.9817799565 0.9308250822 0.1079357861
0.0664424928 0.5183260829 0.4569811772
0.7452620257 0.0668372190 0.9554200465
0.6973503089 0.3908476545 0.6866510217
0.3199963983 0.3394874156 0.4245197282
0.1325094956 0.0545641159 0.9448049814
0.3476514268 0.2240217227 0.2158102114
0.3426118683 0.5034668223 0.9672148014
0.9943014482 0.2098007927 0.9492823042
0.0405104264 0.5640297816 0.4958569736
0.2952805052 0.0465252050 0.5903038701
0.1005883646 0.8220774853 0.5722601222
0.0460211554 0.8831262570 0.1005305607
0.6781979843 0.4513467517 0.9957900778
0.8665379500 0.2014629668 0.1896151736
0.3335180107 0.7789980511 0.5880799612
0.2671030219 0.7397686896 0.4035988301
0.1353649834 0.0978498207 0.9001796888
0.5685316847 0.7980184147 0.3085388413
0.2074831118 0.2354730696 0.1336471769
0.9729684810 0.4283520851 0.2565034999
0.6068944093 0.0766191430 0.4868356476
0.4237316005 0.3082414083 0.8050449130
0.3550784358 0.3534524852 0.2657843656
0.7969528577 0.5935294665 0.3620576284
0.0848746557 0.9822980661 0.3343671135
0.4806864361 0.7331181219 0.7397528519
0.2906463170 0.1402577038 0.4164304023
0.8035591203 0.5289733941 0.5142205984
0.2345075172 0.5954427585 0.0802751021
0.6189963666 0.1524073541 0.6228454480
0.8078298587 0.6498079452 0.7380054017
0.1270143631 0.3204148038 0.6755302279
0.7870599171 0.8206366865 0.0822428693
0.0759149519 0.3127938589 0.7906993952
0.1665558329 0.9462677506 0.1835842454
0.0821418798 0.0835535800 0.4407831416
0.3286554104 0.1620816993 0.1472170245
0.6305567068 0.6938656276 0.1815680589
0.5958803837 0.6881731359 0.9923594282
0.4375813919 0.0535263881 0.6473412946
0.7796460855 0.6030999739 0.6284578181
0.6924483613 0.6751295570 0.1579092435
0.5345977245 0.7948192149 0.0003832486
0.9495077967 0.2589193243 0.3001140325
0.8584830997 0.6147703695 0.5671783800
0.4488592667 0.7864210834 0.5838950365
0.2755426207 0.0757734975 0.6657243241
0.1270322296 0.3966924340 0.0438789953
0.0395936153 0.3380984289 0.4729225278
0.2317180145 0.1133487020 0.6720372104
0.0172515022 0.8404298600 0.3104345594
0.0784603328 0.9263930640 0.4034618346
0.2869801405 0.1366210926 0.9391410179
0.3977503247 0.4042282223 0.0133825620
0.5329495587 0.5225751349 0.5083767376
0.5027111913 0.2449850211 0.1987556493
0.1991172657 0.6187657418 0.9087195627
0.9180464188 0.2626264306 0.9684052259
0.2456969588 0.2498858170 0.2637443602
0.4932841840 0.0529577206 0.6880958506
0.4531385605 0.4805761813 0.2382166788
0.2271875276 0.5287690893 0.8929824434
0.1707415749 0.6403087510 0.9293071897
0.8090628420 0.0192900342 0.4377199643
0.2286973979 0.7869135918 0.5944163967
0.3325703955 0.2519178499 0.4860932410
0.2716501828 0.6779142105 0.6948401875
0.0277343095 0.2378317098 0.6117047596
0.1245414819 0.0507018186 0.8921483099
0.9267690721 0.7352967646 0.8393585186
0.0791802534 0.2638088445 0.7770144420
0.0825362137 0.8714330200 0.7862876159
0.5913622837 0.1586291910 0.9096874233
0.0144175607 0.6225059269 0.7762518795
0.9118270549 0.1103554677 0.9703786899
0.5884834782 0.1982092495 0.7178448912
0.4332259866 0.3678483732 0.2254010255
0.8866522418 0.2107696241 0.0836247912
0.6623693058 0.8190833921 0.9857799584
0.1923482365 0.8001698464 0.9479540086
0.1292742001 0.0350686445 0.1993878204
0.7789691557 0.8260716617 0.4484947654
0.7086874630 0.1028544929 0.4571140072
0.0151571654 0.0291524431 0.5799778060
0.1565008717 0.9510546613 0.0887452590
0.1310652641 0.6134798016 0.6162105252
0.0672408244 0.1134629569 0.4918139865
0.4470826568 0.0086439164 0.7680769887
0.6068694170 0.1672602287 0.6370001443
0.4251620493 0.6499565322 0.6350337506
0.8673289263 0.1633660367 0.2004229016
0.2562402337 0.7394726726 0.8166989634
0.6524017442 0.1894700165 0.0994830263
0.6561642121 0.9831357642 0.8384120925
0.1740969300 0.0884725432 0.8602204836
0.6009249486 0.7274644571 0.9009655507
0.1748336338 0.4195398021 0.3613932299
0.9976964306 0.8960500159 0.7340211219
0.3392389791 0.8536393174 0.3594610786
0.1735054349 0.7596243097 0.3152672450
0.0489918881 0.9272365415 0.3002802848
0.7726910835 0.1622907475 0.7320548880
0.4713198321 0.5254781397 0.5049624442
0.0158095691 0.9425790860 0.7648545735
0.4992887663 0.8096497166 0.6198183901
0.9284654743 0.7106060563 0.8881080692
0.4446222677 0.4298014386 0.3398269068
0.9204728086 0.8072923053 0.7792042727
0.1274743406 0.1389944800 0.7412649934
0.5699997200 0.8422672109 0.0789369845
0.9938379698 0.0322776924 0.4312120414
0.8436963170 0.4896911117 0.6856012322
0.4329521959 0.0535297112 0.1166252864
0.6001461905 0.8410347938 0.5996934891
0.0218729972 0.3502734395 0.1016569730
0.2981356707 0.3186848080 0.7285659311
0.5995178302 0.1704847442 0.5421841853
0.9855482539 0.1365477851 0.4711191401
0.4462594559 0.1746496741 0.4842784469
0.1204176770 0.4337243146 0.6242608546
0.5541345674 0.5244086738 0.4546568805
0.0222295591 0.8280068641 0.6200014503
0.7213102958 0.1733865900 0.2073169496
0.1264181339 0.4873218634 0.7064561049
0.6651157636 0.6439346621 0.6518262612
0.1942095797 0.8706213499 0.3474196354
0.2658569235 0.8150131595 0.1625892583
0.5034533921 0.9558367256 0.0473829760
0.0583270571 0.7784148909 0.6644645145
0.3284878144 0.6836982000 0.3425598895
0.8587605771 0.3861198879 0.8585296143
0.2846365727 0.1732320795 0.4725494996
0.5631818555 0.6982987018 0.9045326353
0.3559179400 0.2099285408 0.4653861709
0.5776547209 0.2374362524 0.3101802042
0.6817470146 0.8647219762 0.3091058784
0.3229512571 0.3462298952 0.9254361098
0.7047979813 0.6712333542 0.4094374884
0.5481485798 0.3562114373 0.5181293932
0.4887136558 0.2564604590 0.0167942068
0.7672054019 0.3672804460 0.8408822805
0.3944033203 0.2462257550 0.6615859102
0.2014518042 0.9020620902 0.2329662792
0.7511356212 0.9982977973 0.2942992494
0.3569132569 0.6048770581 0.5512298661
0.1195252573 0.4105448042 0.8383327391
0.2699987338 0.1276335361 0.9057422966
0.1781410157 0.3749415087 0.8276326664
0.1204650188 0.9856019495 0.2260339535
0.7728007556 0.4733570814 0.3517870372
0.7190684163 0.8929321225 0.9693256347
0.8892889086 0.7137174076 0.8647886025
0.4502561853 0.2196887668 0.9978321524
0.7173523597 0.0972162662 0.4635302457
0.7636394873 0.6654683704 0.1691239062
0.8456675011 0.6871113182 0.3055268437
0.6133136175 0.7689513236 0.5529781593
0.9297106829 0.2417595764 0.3698015452
0.2924830100 0.7605847809 0.2386546323
0.5073383043 0.7623514085 0.8892555451
0.1117387881 0.6517451362 0.9856351528
0.5046324177 0.6563460678 0.6027299291
0.0052730432 0.4827448914 0.2622402017
0.9984668411 0.1608629052 0.1380607166
0.4061089660 0.2618814314 0.5610478645
0.7226146435 0.4910432312 0.8273140228
0.3667732382 0.6478555891 0.6872843544
0.8653782192 0.1529991606 0.8361420722
0.1321177702 0.2463835057 0.2300338312
0.2208231290 0.2309377427 0.1601798128
0.9455565348 0.8882499853 0.8143948854
0.2457363541 0.0764629507 0.4071668723
0.6347932428 0.9416505512 0.5217394940
0.5266981766 0.0665199336 0.9638119387
0.4880727063 0.1819129186 0.4181496264
0.7731010225 0.5886060871 0.3276201264
0.6559912146 0.9200000051 0.6812649153
0.8547852870 0.0697529365 0.3058363708
0.4651421438 0.4787551697 0.7499300592
0.1848795559 0.5358772555 0.9552322644
0.7748844799 0.2472035250 0.0688168031
0.6196950957 0.2105563135 0.0800079448
0.6508098024 0.6967634457 0.6746910662
0.5294848002 0.8558402800 0.4410011042
0.6611800261 0.7894704954 0.8438492739
0.4894772842 0.6782523346 0.4032448355
0.2420281135 0.7192908804 0.9675190913
0.3489955698 0.5080079003 0.3097376985
0.9205980813 0.2679339121 0.2092756974
0.9579249585 0.1989779004 0.1811678989
0.6547773580 0.1752323670 0.0931431519
0.6758046147 0.5705471208 0.2412735052
0.1966260791 0.7716841481 0.0505883492
0.2235136252 0.3979434002 0.8038832400
0.6871050890 0.2587861154 0.2949997007
0.1916572399 0.3427187249 0.5350698968
0.8632886966 0.6880713209 0.0976743010
0.5223266119 0.8485427750 0.7486753997
0.0799288473 0.5278648639 0.0980685736
0.9395141072 0.0102061418 0.4701435960
0.5313257512 0.8045435442 0.8446939603
0.2211889996 0.8222007737 0.0341935273
0.8336259616 0.7464178164 0.9249729642
0.5235395244 0.7417996358 0.3159840767
0.0189498233 0.7202832946 0.7759106613
0.3148741125 0.3262995664 0.8388408864
0.7418867441 0.0056765497 0.7665504399
0.1006472419 0.5661524197 0.2095811828
0.7778466536 0.3468275061 0.9525962400
0.7867472618 0.9102576580 0.6218035952
0.7421687518 0.2134313303 0.1887834722
0.7283561094 0.7474318530 0.1120107102
0.0971821033 0.5640113122 0.4721488724
0.3488558812 0.4652817331 0.7597843132
0.7500319699 0.4313249415 0.0048471904
0.9383582195 0.0852835166 0.2968501239
0.6518044946 0.9123281654 0.5562872805
0.0958624449 0.5820833137 0.8721411380
0.9004155285 0.7035019613 0.2284937568
0.6429796293 0.4095822778 0.6745191680
0.7251585074 0.8610409609 0.1156491105
0.9714052149 0.8045776722 0.6843195720
0.2815261801 0.4761810481 0.7691530476
0.2364868724 0.0403529214 0.9137183898
0.0894733091 0.0282829518 0.4047223486
0.7817746922 0.6163873529 0.7532722371
0.4444463426 0.5891006464 0.4786205079
0.9915183692 0.0611796730 0.7439937060
0.3586662933 0.4657721216 0.9536108341
0.7868149663 0.1256331825 0.4051438972
0.4847741729 0.5873376751 0.0156798753
0.1159455228 0.2404854190 0.5032440609
0.3814222334 0.6887874734 0.9004748013
0.8178960017 0.1499604301 0.6583807857
0.4085947017 0.1684873297 0.8446038274
0.9183924452 0.9300030157 0.4708260659
0.2670873897 0.9955669201 0.3469440759
0.4081483807 0.7867847311 0.8837487552
0.5602440651 0.1922204030 0.2882994948
0.4929030648 0.7613748728 0.1715268462
0.4178576330 0.9384446998 0.9968801146
0.1910559567 0.7110987811 0.8818698486
0.3493999297 0.8339399039 0.7014838327
0.1845400106 0.0731430774 0.6371633785
0.5281273241 0.8365712334 0.4059451639
0.3552231385 0.9877540640 0.9231270857
0.1292639536 0.0526820456 0.1303873805
0.8802605607 0.3323414346 0.2730957627
0.4200609427 0.4463752740 0.3559191985
0.0444676857 0.1929421293 0.3099651001
0.3893478040 0.9403973732 0.0722074256
0.2352200815 0.9676412984 0.4399730007
0.5578292751 0.1361866436 0.2536905787
0.2797489427 0.9767447551 0.2314490161
0.0454266976 0.2143205980 0.9003218215
0.3273706109 0.0263954732 0.0663725745
0.1740542340 0.9754945576 0.5476409776
0.5216939733 0.4551250086 0.8082088759
0.6931465704 0.2488031665 0.3484360784
0.8483402383 0.7384042589 0.9032995385
0.5952308734 0.6470285525 0.4586380576
0.2846280589 0.7217396847 0.9576107501
0.2817971098 0.9429201820 0.4818561764
0.9327140372 0.3465514611 0.4989574084
0.9951276062 0.3346821422 0.4668943852
0.1986118109 0.3055272942 0.8311389283
0.3196523112 0.3317876677 0.1150138693
0.2101360234 0.9024111994 0.2002168749
0.5896457102 0.2059133462 0.7960154429
0.8473047253 0.9035040885 0.2943660066
0.7338095093 0.5478016455 0.0514811041
0.1967684061 0.4548409312 0.0308067560
0.7410540022 0.5643687543 0.9347371827
0.5546289024 0.7511331275 0.9667540787
0.8372006163 0.6855533998 0.5336847431
0.0757435695 0.3750411775 0.9584847613
0.3543936361 0.0068331482 0.0972504745
0.8484593298 0.6730172306 0.0758389452
0.3709777095 0.1718861057 0.9601018011
0.6846697773 0.0196468134 0.8250039435
0.5646910115 0.3579365517 0.9132576888
0.7997897888 0.8988121008 0.1284357532
0.4717373797 0.5447134455 0.4830234929
0.2596897419 0.6449396515 0.1857642797
0.5682125049 0.0990498758 0.2870878556
0.7589651930 0.3260792869 0.7847911507
0.2687177082 0.2520414096 0.0267604406
0.8258304575 0.4275124121 0.9720575948
0.0899875246 0.1883494630 0.0668622430
0.5504397313 0.7698229611 0.4098563505
0.8536311288 0.1726721097 0.3325157862
0.3722501265 0.7809444507 0.6156911224
0.1559219062 0.1066474830 0.1058728022
0.4668809234 0.6051536948 0.9682940615
0.5004246829 0.3392583242 0.7554970622
0.4419625144 0.4379328480 0.2241959317
0.8440485824 0.0415610507 0.5579117037
0.6807275396 0.2890056538 0.5821518460
0.8835242739 0.3507644478 0.2856606200
0.8072124128 0.2128845014 0.3803682419
0.8283602267 0.7527419539 0.1684046167
0.1049700240 0.0445791557 0.4579545407
0.3419144344 0.5538121348 0.2783256975
0.3098433140 0.5125267657 0.2891792814
0.7510034115 0.7786607131 0.1677895614
0.1355631672 0.5054604394 0.8248301639
0.1977379978 0.9683694996 0.2448843990
0.9381860301 0.9298908299 0.3488858008
0.7816656130 0.9560790588 0.9045283777
0.2536799974 0.7717098265 0.9418351874
0.4637731024 0.9100339458 0.6722620877
0.4002369971 0.4520939857 0.7164302838
0.9871999558 0.5107753759 0.7428766796
0.6363671780 0.7072219949 0.7512145281
0.5787795635 0.2477816024 0.1993818690
0.1553456311 0.6521176804 0.7694145365
0.8645653430 0.2713292344 0.7609455114
0.3154842663 0.5173131146 0.3269935916
0.2238305589 0.6694071749 0.5363995146
0.3118525288 0.4242854897 0.7191579000
0.9188400487 0.4260483795 0.1772954181
0.1499536873 0.1189515152 0.2451540368
0.5646519060 0.8460758481 0.0668795712
0.4394470928 0.5848233260 0.1517795183
0.7719070847 0.5933622128 0.7695715854
0.6511717345 0.7665860974 0.8712722995
0.0239331732 0.0631994538 0.4914783274
0.5733145647 0.5321665087 0.7231807345
0.4161890246 0.4140253307 0.4423562769
0.2207797431 0.8279312059 0.7996539642
0.8805483017 0.1534031271 0.9786766416
0.8139301663 0.5158496056 0.9572469935
0.1346515927 0.5193205094 0.6922579303
0.5266110647 0.1400130827 0.7457701148
0.2997777007 0.1694882047 0.2718187558
0.2593619276 0.8284552114 0.0882080188
0.0539779812 0.9723730180 0.0551393983
0.2687322979 0.2289626963 0.8779188571
0.7739228819 0.3935715329 0.3473755110
0.1143678492 0.8121966206 0.0766361174
0.4022755051 0.1783662598 0.6646885237
0.0809782972 0.6070251145 0.3969529448
0.2139925910 0.5798149878 0.9538908197
0.6205923511 0.9670056391 0.9051664691
0.6206733563 0.9950407320 0.6047374707
0.4883050262 0.1671137016 0.0859578991
0.7715967627 0.0018328767 0.2840682017
0.3503171170 0.6712028380 0.7826439316
0.9170148985 0.0711635705 0.2823288571
0.0657817946 0.2293114229 0.3981092269
0.2943403384 0.5774939612 0.0279920222
0.9272577305 0.1428855867 0.0933068868
0.7502882852 0.8551349429 0.1452265951
0.6164869605 0.0521713473 0.7745381007
0.8060141498 0.7329303551 0.9674169567
0.2793519145 0.3773479748 0.3504461828
0.5314950058 0.3863864198 0.9739915753
0.7932689796 0.3725032743 0.5064143202
0.4806579387 0.3215184409 0.5093953660
0.4100935738 0.6203303928 0.5339415064
0.3507446645 0.2148275455 0.7141932653
0.8217512659 0.4764253172 0.1938791947
0.3920136747 0.5304835405 0.4809123841
0.3644106552 0.3360579350 0.0625440940
0.5227604204 0.7582927444 0.1964534387
0.2691587153 0.5736878380 0.7109264769
0.0107851697 0.3006989675 0.8009998067
0.1039560109 0.4693496077 0.2942560270
0.0373650884 0.6735410719 0.8031438055
0.8219850455 0.1176034421 0.7837976898
0.6540232335 0.4590374634 0.2847149590
0.5285555500 0.1098217421 0.9322076311
0.6621694170 0.2327052004 0.9705955935
0.7044372121 0.6248785334 0.9600498014
0.8700518492 0.7953685818 0.8236526938
0.0815539958 0.6740334118 0.2247049627
0.3154745169 0.8806380843 0.2471258639
0.5044756740 0.6239792033 0.3230251389
0.5500509235 0.6935406019 0.6981034300
0.0542418920 0.0010320322 0.5644368354
0.6881908973 0.5245057583 0.9946404050
0.9193849664 0.7044047257 0.8388865764
0.2785803455 0.4317864891 0.2042688290
0.0262505348 0.4106322757 0.7732920209
0.3778300538 0.3144195698 0.5573437171
0.1243422497 0.8757707425 0.1309850427
0.6956382012 0.5760892471 0.2438994399
0.5568408900 0.5691365438 0.9333766585
0.6257636023 0.3653673576 0.1722613379
0.0276928772 0.2889775316 0.9937964549
0.9048562232 0.4646459379 0.0965597775
0.1671995420 0.2008004744 0.2669374339
0.6552202692 0.2395799077 0.4642543033
0.9001969032 0.6972800531 0.9605482165
0.4838973616 0.0838397111 0.6135423927
0.9369920192 0.2041652309 0.2300105539
0.2967683590 0.7656981326 0.4791864294
0.4152720047 0.0526311919 0.6526011296
0.9292699748 0.0219169686 0.4030255074
0.5252323833 0.0289820014 0.1659100806
0.3552463516 0.3193714925 0.2046746347
0.7641604117 0.9263059680 0.4456540891
0.1571371470 0.5831901608 0.3142744072
0.0880882702 0.7897763602 0.8721264745
0.0592467777 0.8735768511 0.2427598879
0.4235710014 0.7761917700 0.8863153672
0.9679529269 0.9022609882 0.8498584255
0.8645567438 0.5716423551 0.2601151110
0.7438355310 0.9819934908 0.6740652862
0.7655212807 0.6862790019 0.3867993627
0.5517491246 0.4697173269 0.4463652603
0.5845464556 0.4560132991 0.8466721652
0.6029265454 0.0021820765 0.3908518677
0.5890110709 0.2877450954 0.7337510586
0.3615838266 0.3308821164 0.2048403445
0.9688278889 0.8258111330 0.8290908919
0.4563602875 0.5925030098 0.2620113453
0.0024512260 0.9956495640 0.0901392571
0.0710706160 0.7202026500 0.7679639628
0.8886079069 0.9137922628 0.2272675214
0.7967754511 0.3264700776 0.5878227915
0.4700519841 0.6359653855 0.8183910097
0.4295137745 0.2559594649 0.0837273043
0.9758938459 0.0158139835 0.9029247512
0.0666408240 0.8269990818 0.5587875750
0.3588130610 0.7008623429 0.3406234160
0.4010264616 0.3289147425 0.7192042784
0.4929921428 0.8758860618 0.6397025579
0.6928269778 0.2458964568 0.3638175247
0.9300052668 0.5843507413 0.8485088408
0.8597806842 0.0264147870 0.0288028688
0.4475562911 0.3381517741 0.0871134598
0.3835270948 0.2552126300 0.2952277892
0.8597615464 0.3761325118 0.2549088545
0.9968714867 0.1975811661 0.5042510978
0.1129306323 0.5023254753 0.6851717111
0.4299637806 0.3766219127 0.8147303125
0.8721424699 0.8925599550 0.9897333256
0.0684205328 0.7858977027 0.2727839871
0.3625406931 0.1319551262 0.0742520342
0.4949766124 0.1768056148 0.5447208979
0.2007630170 0.7126335688 0.4850458609
0.4825387452 0.7728686707 0.8908969159
0.8652309477 0.6618404648 0.2656320276
0.2465101455 0.9015312887 0.2320958276
0.3719848724 0.7775225563 0.5385360920
0.7108890393 0.1483975836 0.9815156653
0.6945457340 0.9726317779 0.0773010167
0.1046444303 0.1487960064 0.9315679363
0.3993165145 0.0939781345 0.6500394830
0.0079870651 0.9906916936 0.1511707888
0.3364173222 0.6140159302 0.8136535016
0.2763393836 0.0175957416 0.0984158363
0.8787728119 0.9964390729 0.6980959836
0.4734070994 0.6156603126 0.6610765517
0.1136508104 0.4574578522 0.4707241620
0.9426841525 0.9012472110 0.1643696223
0.0090001202 0.7997727125 0.2632732201
0.6723413555 0.1828749164 0.4832820188
0.7069064526 0.4487585261 0.6764636017
0.2804847468 0.0907406965 0.7928872433
0.8932669436 0.9327240363 0.7054103563
0.4773834774 0.5731852059 0.6907179293
0.4259322440 0.5604916179 0.3075159093
0.3892195172 0.4202046752 0.2970710604
0.3501540593 0.3110382923 0.6531637054
0.1528379372 0.4870909665 0.3842764631
0.4407678155 0.5270165916 0.0223384009
0.3648943920 0.5805952732 0.6903239013
0.0114843695 0.5513658576 0.6832767961
0.7651504733 0.5009292105 0.1370473437
0.5865809081 0.3823670230 0.7984776096
0.3224111893 0.0729127728 0.1420899728
0.5604984993 0.2561090513 0.4196648839
0.4303019828 0.2794512429 0.5383751060
0.3924410548 0.7699733664 0.9655663877
0.4850234475 0.5344784091 0.1354143419
0.7943826247 0.8027974783 0.6730072711
0.7735832000 0.7916718895 0.4727465186
0.2429714421 0.0533972070 0.4001269072
0.9423354951 0.7795337355 0.9509787251
0.0883627838 0.2103905419 0.2371877401
0.9319319569 0.7779954608 0.9469900835
0.0894691984 0.2759236817 0.5587301784
0.0468887948 0.4515631587 0.4240214608
0.7646763162 0.5138966342 0.5477053001
0.2824298779 0.4491484849 0.3022806821
0.4855569441 0.9109427722 0.2914374351
0.3001048766 0.0233812193 0.5275876594
0.8218572101 0.4357586946 0.5528457433
0.1258607655 0.6530194514 0.7202202205
0.0022896098 0.2739524654 0.6394985952
0.1717565671 0.3472255262 0.2135664956
0.7064217841 0.2924855850 0.9441102133
0.8441431975 0.6884104485 0.3918997817
0.0375548746 0.1848381464 0.9683217794
0.5695506523 0.9932056787 0.9054453242
0.6304084895 0.2335797150 0.4145083080
0.5539429003 0.2178321908 0.3602904635
0.4760637281 0.4925617957 0.4263400308
0.9530280332 0.3183341007 0.3525935638
0.1088570515 0.7385313770 0.8853336632
0.5930650633 0.2907896752 0.1715044948
0.7210809320 0.3028538180 0.3521580303
0.2637547866 0.9082952801 0.7595605594
0.7208485110 0.3394966113 0.1443795600
0.6716510885 0.3417473795 0.1507699761
0.0712951890 0.4397031192 0.7775413697
0.5313698008 0.8279278322 0.1300352096
0.9295262911 0.7309865691 0.4643809643
0.5465311586 0.4787249701 0.9219875059
0.6453106955 0.9162003049 0.6010029871
0.7903707904 0.0641909422 0.3520473505
0.0824098576 0.8882171119 0.9723363352
0.6879160110 0.5698914699 0.5764041949
0.2146693080 0.7478063129 0.8661678675
0.7555762282 0.5140043068 0.7382104025
0.9080521622 0.8867837880 0.6228435231
0.1845511930 0.6548777080 0.6847494747
0.9536536445 0.3183329427 0.0818644242
0.7302944738 0.5190705907 0.4302729669
0.3317936105 0.1039696386 0.4457683283
0.1210866687 0.9035371233 0.3476668914
0.7209354848 0.9556291106 0.5568366651
0.6734952396 0.5064154199 0.8457336665
0.9264216336 0.1495001265 0.4494837330
0.6374774721 0.7414020550 0.4022219930
0.8954316078 0.3604969438 0.0437157273
0.2477394710 0.2974483577 0.7145814536
0.8188683654 0.7382499511 0.6238680699
0.8213763409 0.2570328096 0.4471054280
0.1608850808 0.4561381144 0.6842586628
0.7011276859 0.3005606573 0.3377237807
0.3379164026 0.5171255878 0.1688611406
0.9272218380 0.7482878879 0.3171552428
0.3390929069 0.8215173731 0.1861042781
0.2357854554 0.2208687295 0.0460795962
0.5234316970 0.2102541493 0.4165974832
0.3675830388 0.4512518024 0.1546104395
0.6643190294 0.6187503520 0.3117032036
0.2710779652 0.8775305769 0.9377703306
0.5123663839 0.2412091076 0.2254581507
0.6365656014 0.0141335844 0.8933975608
0.3151109779 0.6748760060 0.0022057628
0.0707787663 0.6187965121 0.0538979349
0.3307717413 0.4814036387 0.4290724973
0.0265476472 0.1262998681 0.4648944841
0.5316535556 0.4924078535 0.4626871998
0.2868560669 0.7891952753 0.0250718927
0.5949217488 0.0664882531 0.0166019233
0.4779154386 0.7777744166 0.4741365413
0.2479279306 0.6030424285 0.1758872613
0.4698145872 0.2608803514 0.9908997910
0.4167699067 0.4199832186 0.3054989902
0.1759209013 0.4341284480 0.8718616678
0.4523900411 0.7658015115 0.7894588783
0.0635430441 0.2364478090 0.5287608234
0.9172943521 0.4680874222 0.5191496525
0.7160051170 0.0438809885 0.4189621174
0.4273900486 0.3866686669 0.3462684066
0.0529165547 0.2583590447 0.4856055642
0.3651750522 0.0970583428 0.2162118642
0.2834689809 0.3873085376 0.7287130944
0.3382187310 0.5674012430 0.1243652076
0.0492824750 0.5710953394 0.8291788737
0.7842721431 0.1341051268 0.9474007130
0.9648644026 0.4103018312 0.3351081331
0.8994249821 0.1846850942 0.7165381023
0.3489565255 0.3314902966 0.0139465105
0.0690699979 0.1504217281 0.6474467506
0.6962526832 0.5969761935 0.2356371370
0.3675449215 0.9793900783 0.2106026054
0.0573249983 0.2232371856 0.8065432184
0.1425624669 0.4031850775 0.2251425991
0.6515926208 0.0334723472 0.1909203535
0.8482647535 0.0420891745 0.6783914108
0.9726208512 0.6851705743 0.5860727380
0.1417781412 0.2729893052 0.2454639600
0.5014236105 0.7528542621 0.1240227877
0.4107595536 0.7283242371 0.3447877465
0.2346473250 0.2730419455 0.0615023587
0.4267109655 0.4511864998 0.1230371186
0.7340302276 0.2698203593 0.1324243801
0.3744034672 0.3526049850 0.3137368623
0.8146571458 0.4244394839 0.9750127671
0.6797865434 0.1186375946 0.7856469940
0.5491430075 0.4419840893 0.7654593955
0.8679122311 0.2106590851 0.4239594627
0.5226743722 0.0461231252 0.5108074415
0.6445216101 0.7417948742 0.0075819937
0.8894626404 0.9111837948 0.5397643331
0.5272771449 0.9277304679 0.1656657031
0.2404413559 0.9183160398 0.6844276890
0.1201823754 0.3884281837 0.6611329744
0.0908587481 0.2944302758 0.7409694305
0.6241228889 0.1465107280 0.3672438005
0.0384493123 0.3174335754 0.7935668794
0.7124283450 0.7474624984 0.0051407227
0.0371824449 0.5468838575 0.1308696447
0.2694436261 0.4107192177 0.5079239148
0.7868116645 0.8055128550 0.2303051233
0.0973214902 0.6906724248 0.3085045123
0.9776372445 0.1375161588 0.1162037308
0.3041355490 0.9524036792 0.0760548553
0.4584524627 0.1293837673 0.4141101868
0.6998774746 0.7236580358 0.1327574038
0.8750507969 0.9836744616 0.1060784906
0.4319749324 0.4276991763 0.1065286940
0.2820817709 0.8699923185 0.1063754626
0.4957730865 0.0558950692 0.3987015628
0.3629962605 0.1733904850 0.1722396823
0.4566455260 0.2606611198 0.9203057494
0.8072247404 0.9866653365 0.5127379006
0.2026229861 0.5540349878 0.6094925586
0.5896183518 0.2597284211 0.4711245220
0.6764661960 0.9800010850 0.3299068830
0.9042963154 0.5268746354 0.5955685144
0.4986423736 0.4087750062 0.4224854145
0.4193081797 0.2889577891 0.2702276892
0.2958274817 0.8363701388 0.3574347301
0.6222601322 0.1669223961 0.1616001286
0.3311368707 0.9156276695 0.5202419603
0.7055231978 0.8386683391 0.8696622352
0.0328199801 0.7198312959 0.1839901908
0.0818340421 0.3195307423 0.8092174641
0.6399936480 0.2414753297 0.0414967578
0.3264023139 0.1216510890 0.3472106417
0.3484465026 0.6820811540 0.7673525856
0.8234101174 0.5266636617 0.8885629497
0.0636323890 0.8465317587 0.7197057021
0.0441502049 0.3243404769 0.0558060381
0.9054497434 0.5529168318 0.8975517686
0.7812600035 0.4311912268 0.3119722453
0.4715291186 0.0288561776 0.0643552119
0.5016979450 0.4345662447 0.1028113011
0.6300476894 0.8040507720 0.6756340453
0.2843148615 0.3200678737 0.3840583480
0.3399283835 0.7989414247 0.7618509795
0.9566274490 0.1217142540 0.7599251818
0.8819387834 0.8935634209 0.1089629456
0.0921059519 0.4025109368 0.4864598203
0.5546472070 0.5471477749 0.7398785599
0.0758841311 0.0035367547 0.0631419339
0.2969521697 0.2930861990 0.0731377892
0.8151622857 0.2319623981 0.8341002069
0.8692910795 0.6545144634 0.3512482821
0.9998669786 0.5026717219 0.1367912091
0.2616620513 0.8652037379 0.4121050897
0.4119531756 0.1032765148 0.8916820456
0.0554220186 0.9668880484 0.2621348254
0.0660752714 0.1749803701 0.0048547111
0.4507308768 0.0799098765 0.6941636209
0.6963376382 0.5799402376 0.1450624110
0.8824989094 0.5929790187 0.4984138628
0.4901842862 0.0450718544 0.8124852251
0.7103108608 0.8701372473 0.0182211627
0.8972540586 0.9001792584 0.3086512733
0.6655111862 0.0002515098 0.6477762123
0.0000502564 0.4558222177 0.0841741275
0.8275138200 0.1902464174 0.2864605325
0.1856768245 0.5407952012 0.7613132916
0.2165640399 0.9320894874 0.2537805419
0.7321825569 0.8175994757 0.9587816161
0.0203471478 0.5418074437 0.8763209594
0.7114527342 0.0819343027 0.2418723061
0.7665547542 0.4743352747 0.7948368053
0.7822210863 0.1369328228 0.6920819513
0.6124388773 0.8990451789 0.5313577601
0.1264726048 0.2136228085 0.5117453021
0.7956874893 0.3084884725 0.7911570900
0.5851858994 0.4743382681 0.3108978715
0.7798731957 0.4338374064 0.3580846348
0.0381465461 0.1759511276 0.8808718950
0.9243153867 0.1875054415 0.5710444541
0.6407583397 0.0032582891 0.8145941217
0.8217309165 0.9404633769 0.3230963392
0.2299133130 0.0464560033 0.9904642438
0.7788262552 0.4786258296 0.4727128035
0.0483686349 0.7253343182 0.5099439293
0.0254655535 0.9258863989 0.0769396070
0.0930792040 0.3962167104 0.9262289246
0.4510234932 0.1265774323 0.2837928618
0.3756966253 0.0154499365 0.2122639763
0.0631604416 0.5965096813 0.5901291869
0.1716821144 0.7417365959 0.6622487250
0.3359018418 0.5632089612 0.6079269265
0.0991902055 0.1555444848 0.3707007482
0.7486649699 0.2907668586 0.1290827004
0.9488635890 0.4525103671 0.1862404835
0.0475847186 0.4226816264 0.4769068766
0.8498424094 0.9962630998 0.6985462088
0.6099577211 0.9225933122 0.2920289296
0.1013152284 0.6846626006 0.3008598576
0.3261087722 0.0292055732 0.0000352484
0.1772867332 0.2072102992 0.2059176630
0.6534791254 0.2926199857 0.1720503654
0.4921790729 0.1474660662 0.2588759000
0.5685259514 0.5094995674 0.0565927618
0.2613611446 0.0244946906 0.9367639829
0.9717977877 0.4013518449 0.2255605908
0.9644257689 0.5200527752 0.0531043280
0.3659719640 0.9510418660 0.2444671461
0.5870792301 0.9965405267 0.2021646535
0.7538025209 0.5661256045 0.9438601902
0.8484778711 0.2196713454 0.2704043311
0.0105988808 0.8996840969 0.8904588831
0.1592258057 0.9264833221 0.7502917591
0.5210310686 0.9137082060 0.1529880363
0.8018411685 0.5871573342 0.4640763424
0.1222310510 0.3350963293 0.0836659251
0.7055866424 0.2871965811 0.2295282715
0.0527045642 0.6528872805 0.9426642424
0.0198628689 0.8664091947 0.6772784623
0.1075977603 0.3101748563 0.3870566289
0.9550269094 0.6856927693 0.4099367459
0.9382456130 0.7477019718 0.4845451398
0.5031551866 0.4797716291 0.4063939703
0.6010910721 0.9675068349 0.5622727670
0.4667815325 0.2242631329 0.3823779948
0.8015992006 0.4913616508 0.1286263095
0.9652770240 0.2768793561 0.4986998591
0.8806436144 0.4482644174 0.3264535198
0.5965817434 0.2779140947 0.4659838028
0.2321594982 0.2865780222 0.1581459791
0.7667212796 0.0406789431 0.9574816124
0.4652880865 0.8501333411 0.1428598079
0.6275132185 0.9090000863 0.6178362500
0.5981650639 0.5554045899 0.4932277012
0.9752516332 0.4328506494 0.3109210356
0.6948788177 0.5077301592 0.0288561533
0.4455152363 0.5187630681 0.3330997740
0.3665263850 0.1934129470 0.4740196269
0.2452511152 0.3028040455 0.2016320956
0.3065694550 0.9216834564 0.6492709006
0.3830179549 0.2461124636 0.4508325681
0.7441668857 0.1664090795 0.5325408401
0.7816505125 0.5455913324 0.0095701705
0.1719458029 0.1618369245 0.8573219302
0.4779536670 0.5024492554 0.0079011921
0.3449480672 0.6978098468 0.0431509970
0.2867711193 0.2813762720 0.1755088592
0.8831252874 0.0485124458 0.7393028863
0.0779989507 0.6335272769 0.9543898515
0.4875569718 0.3607573110 0.3435718257
0.3658108719 0.0699261760 0.9018672695
0.3639728327 0.4450225554 0.5340289681
0.4416223321 0.4587471820 0.5788788277
0.0972171283 0.5004266068 0.0307602752
0.6900505810 0.8711394284 0.5422696897
0.3998548500 0.7423859430 0.5241982246
0.5023377606 0.7620560387 0.7689232692
0.8328562494 0.4726883936 0.4134013794
0.9412212874 0.2791965958 0.3960394277
0.3465606897 0.3558311798 0.0023355062
0.5162094529 0.5917507242 0.2057836074
0.9758714045 0.9720744992 0.9218817319
0.3415070383 0.3071087199 0.6463971207
0.7370653271 0.0785820429 0.4997193742
0.8659620449 0.7105114443 0.6578284707
0.7565034501 0.6943908815 0.1438510832
0.7417672635 0.3980362648 0.5945590558
0.7645706825 0.2548174155 0.9189445027
0.7008923050 0.8087478970 0.1786172185
0.1690293627 0.4120055139 0.4396797694
0.0403788788 0.2424180013 0.8965267272
0.3952933348 0.8937310912 0.9507840412
0.7079990079 0.9591521381 0.8103046588
0.1891838822 0.9441034705 0.4180398023
0.3273927691 0.4483539434 0.9675433923
0.4875140284 0.8938990116 0.4235479951
0.6007041563 0.2460160817 0.3941229489
0.5319598461 0.9190957466 0.1219075907
0.4502159279 0.0041296836 0.1930504637
0.0690933009 0.2519108283 0.1347095708
0.5760364322 0.2553188431 0.1939308925
0.1678619738 0.8372140684 0.6228949102
0.8194780540 0.8770211273 0.7588884607
0.1815846724 0.5474680811 0.4027798389
0.0443520991 0.3643447723 0.1258787753
0.1512298138 0.8706677091 0.5074152715
0.6773809015 0.6572860533 0.5679017583
0.2893119612 0.0331383977 0.8175201440
0.6085125441 0.8354922336 0.0797627295
0.8290181495 0.3870915639 0.6496409687
0.4966483671 0.0370522047 0.0045417801
0.8078995666 0.2044833700 0.6062980731
0.0292274844 0.1977253482 0.7522708770
0.7432759242 0.8186098237 0.3573583610
0.8468841338 0.3077095197 0.0099813952
0.3287576071 0.2878145771 0.2835854055
0.9879095404 0.6617480484 0.4651159034
0.7058819326 0.5475245255 0.8228533609
0.2186820756 0.2803177600 0.8243182990
0.8312302053 0.4129369870 0.9140834968
0.6382763747 0.6260207556 0.9434361580
0.7338856339 0.8726024798 0.7363479208
0.9729582162 0.3442547654 0.4731245942
0.3998792386 0.1671579972 0.5957280966
0.8968780030 0.6431307345 0.3797170306
0.9707814137 0.9495684821 0.1618013680
0.8828575328 0.3744981298 0.4123240984
0.6082855011 0.3330796313 0.6795281889
0.9099285910 0.1581153360 0.7383303092
0.2173064141 0.3249972904 0.4338080190
0.6671435933 0.6544945107 0.2776871010
0.8145585529 0.9286197674 0.9081004224
0.1843594433 0.9036607005 0.6200566722
0.0818654410 0.1233720279 0.3133783057
0.9418633447 0.6008799624 0.2182902400
0.0552936311 0.6439912614 0.1734914836
0.5308805048 0.3404374292 0.1897238190
0.2089794480 0.0299218105 0.5770553972
0.5555969098 0.3094656244 0.6864403124
0.0462164375 0.3202940391 0.2645262295
0.7422458112 0.4768624054 0.0635824291
0.6622554433 0.8938110816 0.2471333211
0.5805212732 0.3982994660 0.4111212088
0.5237678530 0.6228897407 0.7724343591
0.5877344535 0.3656494999 0.4205881080
0.8567596937 0.2018326655 0.7301209025
0.6139544804 0.7545948537 0.8804009040
0.7089964911 0.9379989452 0.2014068358
0.5803244488 0.4212674672 0.7362397039
0.5728135111 0.5775203815 0.2747069600
0.6006566020 0.8567730189 0.2263213771
0.3474726821 0.7643332672 0.1840400640
0.9771210507 0.2079495302 0.3517832321
0.3432131266 0.1683433506 0.6902644459
0.7400897899 0.5572061663 0.3044692864
0.6296475707 0.5144700128 0.8764511588
0.3580430509 0.1224623202 0.1406968160
0.6022526366 0.5143434613 0.9483776704
0.0374416802 0.5032063666 0.8102018351
0.6576925506 0.3264834049 0.0558362367
0.7864567558 0.1645644609 0.6325571037
0.9671880201 0.9408386768 0.6772483033
0.9882400888 0.3827488846 0.0824176645
0.3959523379 0.3241956364 0.1762509980
0.1093919187 0.7206821917 0.7520028156
0.1884936830 0.0730400076 0.9542850395
0.3705659758 0.9075753321 0.0618691721
0.5835617721 0.0975003687 0.2103550892
0.2355001651 0.9556320028 0.3687198548
0.6528146599 0.5418179529 0.0577078153
0.8001751910 0.1304239348 0.2199567227
0.3522517441 0.0008521407 0.2111499839
0.6949534731 0.5156796518 0.9086668914
0.2641755274 0.3282886862 0.9115593764
0.7207551178 0.5440751575 0.6187087072
0.7492176149 0.2521882257 0.9506768350
0.0061254708 0.1638440437 0.2564943543
0.0092158789 0.9818547291 0.9645923034
0.2104023543 0.5771521562 0.4843439609
0.8937457395 0.9103875368 0.2143461652
0.6792426187 0.8384176848 0.7026040150
0.0057276357 0.6197218570 0.9716752492
0.3401886373 0.5857410146 0.0961696882
0.0656766258 0.8460326730 0.0711336177
0.0867310929 0.9802992376 0.3985277360
0.5131606797 0.2227304826 0.6240001712
0.5414517997 0.5156002096 0.7209030853
0.3769052876 0.9942133599 0.3103262087
0.2753375653 0.3295423306 0.4988685080
0.5823811625 0.6198796818 0.4511761183
0.1102870384 0.8435011829 0.7272442125
0.1749176172 0.5628255011 0.2833293444
0.2439171235 0.6856405555 0.9893075189
0.0330620970 0.7057272550 0.4770270276
0.9538220862 0.1909637324 0.1337553809
0.9201449493 0.2407452924 0.9865085751
0.3039897210 0.9733466862 0.9290373461
0.7712899447 0.7555575012 0.3647920790
0.1721180761 0.2645294650 0.0973982219
0.6595974798 0.2693154002 0.1317844073
0.8453742351 0.4096586137 0.2878247763
0.8252413220 0.0745437308 0.2985224129
0.0421360652 0.4923614653 0.1262115375
0.8994798595 0.5471427925 0.4340610010
0.4888599252 0.0338229329 0.8189272539
0.3892744294 0.6913929762 0.4269314009
0.6012829482 0.7435855435 0.7950643816
0.6803253812 0.4310993568 0.9501379814
0.1513221050 0.8475202771 0.4036872829
0.0648932998 0.9379493198 0.9119008906
0.5187711218 0.1084218121 0.9194607265
0.0565437445 0.6820942791 0.6377934635
0.0844008367 0.7866842085 0.6113508368
0.5141441827 0.4618495068 0.2036770641
0.1312588230 0.2931131121 0.5966972390
0.2637138711 0.9392570578 0.4763261563
0.9410841833 0.0774470559 0.4519712566
0.4707044297 0.7399544041 0.4153697846
0.9085285772 0.5839012372 0.7103693819
0.7706334671 0.6841401172 0.3323183849
0.5367849227 0.9417666593 0.8357115060
0.9350016950 0.7377018887 0.9344171478
0.4980582923 0.7939473549 0.9856670199
0.7693532010 0.0683495354 0.9191625898
0.6341262536 0.7522023971 0.6284252768
0.4526751236 0.8735368657 0.0135415481
0.1183937905 0.9128969738 0.8095539560
0.6873557951 0.0161886522 0.1034600779
0.6208785698 0.7700202139 0.1939896587
0.7666545933 0.2899787027 0.2335765360
0.7086732586 0.1255547047 0.9093737358
0.4461534504 0.7866272313 0.0607224531
0.1372141457 0.0387275335 0.1383092200
0.7009449584 0.7762256942 0.3087797578
0.5730272439 0.8442495950 0.3065633595
0.1432326969 0.6668087130 0.3903447542
0.8389972774 0.4875131696 0.1438149001
0.2471522745 0.0405178815 0.6682846818
0.5439296624 0.7097532805 0.1991773345
0.4222380225 0.5469497855 0.3249250569
0.1196535697 0.8765120197 0.8689599157
0.2416048423 0.4365611378 0.1915151415
0.2637868630 0.7015561155 0.8680441481
0.1281198403 0.6094159651 0.6953825570
0.4501957440 0.4339481962 0.7651293701
0.1542483850 0.0025120185 0.0329781071
0.3150414187 0.6087752430 0.0150386350
0.5160916049 0.9292573297 0.1827159546
0.0828641133 0.2836979237 0.3889754961
0.2477218752 0.2650730236 0.2276518505
0.6333060656 0.9567408198 0.2153016144
0.5687090432 0.8110745219 0.3394067559
0.7562452020 0.9317416520 0.2335261028
0.1908608162 0.6162930860 0.9744648417
0.8794301105 0.7848848304 0.6099428563
0.4659614905 0.5920832565 0.7306478924
0.2972679069 0.6553868223 0.2686225786
0.7137576753 0.3251382822 0.4728773616
0.9501760829 0.3939540694 0.9997642780
0.7013436523 0.7545911164 0.6963012501
0.8973949140 0.0709235363 0.0189949891
0.8806998296 0.2876626283 0.6856346567
0.1805927170 0.7423582960 0.5217066331
0.4724089682 0.7760766400 0.4700062035
0.3212370443 0.1461069844 0.7635208583
0.8957918007 0.5160138837 0.2109208771
0.7421270509 0.1525658173 0.8138020003
0.9020208848 0.3135548778 0.8662976781
0.6314992106 0.7451005738 0.2001258258
0.2566813091 0.8325612380 0.7909344611
0.6505568128 0.7878060269 0.8858739575
0.9184344215 0.5977378760 0.7153073936
0.3827619809 0.4435987421 0.0454342382
0.4128225340 0.6065496220 0.7166082123
0.7092630079 0.0230950901 0.8481480236
0.4873362746 0.3490047975 0.9399186394
0.2548153754 0.4649749136 0.2301028154
0.1027821437 0.3431736155 0.4475981993
0.2321071283 0.6685704440 0.5530703854
0.3527539958 0.8292069911 0.4202223525
0.3441853249 0.7184699563 0.0462096416
0.2112224991 0.5135760720 0.4010257290
0.7274052769 0.8482454216 0.2332345525
0.0755786564 0.5455289303 0.5224188538
0.5583921029 0.5037146742 0.7645147402
0.0074591733 0.3899848692 0.1070006546
0.8963953609 0.3293241833 0.5546317364
0.9581656382 0.7706783467 0.1846319294
0.9113056350 0.6659461496 0.9851765447
0.8739745758 0.5533579661 0.1646345864
0.5764345921 0.8185711984 0.6796973360
0.1847560855 0.4357412275 0.8239301454
0.5684424310 0.3350027174 0.8570243599
0.2559312353 0.2339242014 0.7998888593
0.8321678885 0.5504089450 0.1815134224
0.4810161318 0.4547410159 0.7022647760
0.3702186870 0.8179096162 0.6667308990
0.9006624213 0.4248647956 0.2045890717
0.6968524661 0.9918219563 0.2749722352
0.1565189874 0.5496306850 0.7807977534
0.0074472037 0.1205295723 0.5217572449
0.0279274092 0.7710862991 0.6748299299
0.8382920870 0.1996712889 0.5878624720
0.8182484967 0.6772822177 0.0005910949
0.9593566323 0.2792824351 0.8864646408
0.0281290513 0.2714037042 0.9559001493
0.3602283225 0.5742538808 0.3358622413
0.5343882619 0.2365799799 0.3442343193
0.5931326942 0.5024378287 0.9014041925
0.0179852657 0.6281860799 0.8939076007
0.4694957274 0.1628659495 0.5926711553
0.9619831326 0.5592530691 0.6804492447
0.5617406400 0.1643663005 0.8441431245
0.7580421286 0.3685287891 0.3348151644
0.8888436869 0.0004387293 0.1271182660
0.8315329789 0.5623080184 0.3372357774
0.8085658238 0.9592205404 0.1533796613
0.7097060296 0.0697715850 0.3232389672
0.9122388375 0.8180619415 0.0308765232
0.8034694457 0.9734733821 0.7421060899
0.9572763376 0.1546101975 0.1868286778
0.9779177733 0.9499016248 0.5044590767
0.2371425004 0.2684000687 0.9442720534
0.1236378661 0.2166516548 0.3069760867
0.9295590741 0.4106148878 0.6543370531
0.5788623625 0.2936071791 0.6522058542
0.6988156919 0.7290280795 0.4407714975
0.9138679778 0.2693647461 0.3542851371
0.8050039591 0.6776806091 0.1471285583
0.9336710412 0.8216031280 0.5485254212
0.7876964224 0.9115145047 0.1142784145
0.3724798648 0.6932263294 0.8915695524
0.7265733638 0.2116909094 0.5890012418
0.0389285988 0.6643622047 0.2033448835
0.9332787739 0.0838535706 0.5782195120
0.5646075689 0.7819397619 0.1983774637
0.5280795443 0.7943490792 0.5861068752
0.1927922915 0.1436461753 0.7302143495
0.9611634628 0.2326699379 0.0204502264
0.6419093725 0.8561622263 0.3627021274
0.0983557703 0.4051319697 0.0420984191
0.4898114696 0.0573274605 0.1017656985
0.2826857912 0.3694731709 0.9739798580
0.3481790617 0.9929963169 0.7395602344
0.9763648180 0.3233042554 0.9099170088
0.8675809330 0.2080899692 0.7499130867
0.1507686039 0.8634038718 0.7454780721
0.7189203046 0.5445787667 0.6132262410
0.8018254432 0.1728772100 0.9374687311
0.4822085736 0.7264581309 0.6236001131
0.5939083072 0.3316699964 0.9622660011
0.6296115475 0.0116573302 0.2315588396
0.6677841048 0.4334899137 0.2684840581
0.1549862372 0.7159258136 0.3692415487
0.0906160139 0.2146844190 0.5739687258
0.4194514289 0.0253249517 0.2851227185
0.5581115206 0.0872838703 0.4821486358
0.3319859292 0.8557656578 0.9120223731
0.9273621115 0.2236571677 0.9204369844
0.2214341763 0.5346595462 0.9966113452
0.6208594710 0.7818335060 0.9599701649
0.3581730868 0.3513820613 0.1441636321
0.8785610996 0.2888581016 0.8938018312
0.2816903222 0.4748656799 0.0592400424
0.8884056114 0.9060346264 0.9916574090
0.5223439801 0.4902236385 0.7624752382
0.7023540246 0.5106647209 0.2366990056
0.5906186962 0.9616448674 0.2558840932
0.2699822608 0.9778043233 0.7810774411
0.3312421276 0.0580781234 0.1699218893
0.8025158600 0.5817614555 0.7283199047
0.3394147930 0.5435788430 0.0815377567
0.4476587604 0.3432312772 0.4236853837
0.6303136181 0.8288464461 0.8005405798
0.3252037551 0.5331665635 0.2026396208
0.0727897262 0.3605468989 0.0886650058
0.3310284542 0.4568876111 0.4294049811
0.3592252007 0.8574694696 0.6677182551
0.1044501479 0.6450605186 0.7974532057
0.5353768731 0.4486632091 0.5526647211
0.9574472883 0.5982379321 0.8427371118
0.8167339846 0.7784952786 0.7204523528
0.2475220606 0.4394521759 0.4542044611
0.0263751475 0.1292649450 0.7330523618
0.0875246517 0.5117538045 0.1182718161
0.3529337602 0.2367093510 0.4093964392
0.9705922673 0.3800025177 0.1497920758
